# .PCD v0.7 - Point Cloud Data file format
VERSION 0.7
FIELDS x y z
SIZE 4 4 4
TYPE F F F
COUNT 1 1 1
WIDTH 1982
HEIGHT 1
VIEWPOINT 0 0 0 1 0 0 0
POINTS 1982
DATA ascii
0 0 0
-7.256 0.51700002 4.1760001
-9.04 -0.111 4.2729998
-8.9169998 0.052999999 4.5149999
0 0 0
0 0 0
-9.0679998 -0.32499999 4.29
-8.934 -0.148 4.5229998
0 0 0
0 0 0
-8.1129999 -0.48100001 3.8440001
-8.9399996 -0.35299999 4.527
0 0 0
0 0 0
-9.1169996 -0.75599998 4.3299999
-7.9569998 -0.495 4.033
0 0 0
0 0 0
-9.1049995 -0.97100002 4.336
-7.4790001 -0.63599998 3.7980001
-8.1199999 -0.498 4.382
0 0 0
-5.9450002 -0.77499998 2.8410001
-9.0340004 -0.97600001 4.5960002
-7.1420002 -0.59500003 3.8570001
0 0 0
-9.1339998 -1.409 4.382
-5.7189999 -0.74900001 2.9170001
-6.9840002 -0.73699999 3.776
-7.5149999 -0.583 4.283
-9.1560001 -1.633 4.4130001
-9.085 -1.4 4.6490002
0 0 0
-6.6960001 -0.66299999 3.8180001
-9.1800003 -1.859 4.447
-9.1870003 -1.6289999 4.7189999
0 0 0
-6.612 -0.79799998 3.7709999
-9.2019997 -2.0880001 4.4840002
-9.1870003 -1.846 4.7379999
0 0 0
-7.4720001 -1.064 4.2670002
-9.191 -2.3110001 4.5079999
-8.8719997 -1.992 4.5970001
0 0 0
-7.4790001 -1.228 4.277
-8.915 -2.4649999 4.402
-8.7609997 -2.1760001 4.5640001
0 0 0
-7.5040002 -1.398 4.2989998
-8.0179996 -2.4200001 3.9890001
-8.6660004 -2.3629999 4.54
0 0 0
-7.5159998 -1.568 4.316
-7.9349999 -2.5969999 3.98
-7.9629998 -2.3670001 4.198
-8.1700001 -2.1659999 4.5139999
-7.3200002 -1.692 4.2140002
-7.5110002 -2.652 3.8010001
-7.9949999 -2.5739999 4.244
-7.3860002 -2.132 4.1009998
0 0 0
-7.1409998 -2.7090001 3.648
-7.5809999 -2.631 4.0549998
-8.052 -2.5179999 4.4959998
0 0 0
-6.7849998 -2.756 3.5009999
-7.2059999 -2.684 3.885
-7.6690001 -2.586 4.3070002
-7.6620002 -2.299 4.46
-6.4590001 -2.799 3.369
-6.868 -2.7360001 3.7349999
-7.3590002 -2.6630001 4.1599998
-7.7049999 -2.4949999 4.5040002
-6.1719999 -2.845 3.256
-6.5469999 -2.7809999 3.5929999
-6.9889998 -2.7049999 3.9779999
-7.5570002 -2.628 4.4400001
-5.9000001 -2.8870001 3.1500001
-6.2680001 -2.8310001 3.474
-6.6810002 -2.756 3.832
-7.2090001 -2.6830001 4.2579999
-5.6059999 -2.904 3.0309999
-5.973 -2.862 3.345
-6.3740001 -2.7950001 3.6860001
-6.869 -2.7260001 4.0819998
-5.4039998 -2.9590001 2.9619999
-5.71 -2.8959999 3.2320001
-6.0830002 -2.829 3.5480001
-6.5689998 -2.7739999 3.928
-5.1589999 -2.9809999 2.8670001
-5.4829998 -2.937 3.141
-5.8379998 -2.8729999 3.437
-6.2940001 -2.8199999 3.79
-4.9429998 -3.01 2.7880001
-5.243 -2.9619999 3.04
-5.599 -2.911 3.329
-6.0050001 -2.848 3.6440001
-4.7579999 -3.0480001 2.7249999
-5.0359998 -2.997 2.9579999
-5.3660002 -2.9419999 3.224
-5.7610002 -2.888 3.5239999
-4.553 -3.0669999 2.651
-4.8200002 -3.017 2.869
-5.1529999 -2.9760001 3.1300001
-5.526 -2.9219999 3.4089999
-4.3779998 -3.096 2.592
-4.6370001 -3.05 2.8010001
-4.9439998 -3.003 3.039
-5.3039999 -2.9549999 3.3010001
-4.204 -3.119 2.5339999
-4.4629998 -3.0810001 2.7360001
-4.7420001 -3.0250001 2.95
-5.092 -2.9849999 3.2019999
-4.0440001 -3.145 2.483
-4.2800002 -3.098 2.665
-4.553 -3.0480001 2.8699999
-4.8969998 -3.016 3.1110001
-3.8870001 -3.1689999 2.4330001
-4.1209998 -3.1259999 2.609
-4.3860002 -3.079 2.802
-4.7069998 -3.043 3.023
-3.737 -3.1900001 2.3870001
-3.964 -3.1489999 2.553
-4.2220001 -3.105 2.7360001
-4.5229998 -3.0669999 2.9389999
-3.5880001 -3.2060001 2.3410001
-3.813 -3.1719999 2.5
-4.0619998 -3.1300001 2.6730001
-4.3449998 -3.0880001 2.858
-3.4460001 -3.223 2.2980001
-3.6760001 -3.1989999 2.4560001
-3.9159999 -3.158 2.618
-4.1820002 -3.1140001 2.7869999
-3.3210001 -3.25 2.266
-3.5250001 -3.21 2.402
-3.7650001 -3.175 2.559
-4.026 -3.1370001 2.72
-3.1849999 -3.2609999 2.2260001
-3.385 -3.224 2.355
-3.6210001 -3.194 2.5050001
-3.8740001 -3.158 2.6559999
-3.0610001 -3.2780001 2.1930001
-3.2590001 -3.2460001 2.3169999
-3.477 -3.207 2.45
-3.724 -3.1760001 2.5929999
-2.9419999 -3.2969999 2.1630001
-3.1340001 -3.263 2.2780001
-3.346 -3.227 2.4030001
-3.5869999 -3.198 2.5380001
-2.8269999 -3.3150001 2.1359999
-3.0139999 -3.283 2.244
-3.221 -3.247 2.3599999
-3.451 -3.2179999 2.484
-2.7090001 -3.3269999 2.105
-2.8959999 -3.299 2.21
-3.096 -3.2639999 2.3169999
-3.3210001 -3.2379999 2.434
-2.602 -3.346 2.0829999
-2.7820001 -3.316 2.177
-2.9779999 -3.283 2.279
-3.1919999 -3.2539999 2.3840001
-2.4960001 -3.362 2.0599999
-2.671 -3.3310001 2.1470001
-2.8629999 -3.3 2.2420001
-3.0739999 -3.2750001 2.342
-2.3870001 -3.3699999 2.0339999
-2.563 -3.3469999 2.1199999
-2.75 -3.316 2.2079999
-2.954 -3.293 2.2980001
-2.2839999 -3.382 2.013
-2.457 -3.3610001 2.0929999
-2.6400001 -3.332 2.174
-2.8369999 -3.3080001 2.257
-2.187 -3.4000001 1.9960001
-2.3510001 -3.3710001 2.066
-2.536 -3.352 2.145
-2.7249999 -3.3239999 2.2179999
-2.089 -3.4119999 1.978
-2.2490001 -3.3840001 2.0409999
-2.425 -3.359 2.1099999
-2.6140001 -3.3410001 2.181
-1.994 -3.428 1.9630001
-2.151 -3.398 2.0190001
-2.3210001 -3.372 2.0810001
-2.506 -3.3559999 2.1459999
-1.896 -3.4319999 1.943
-2.052 -3.408 1.9960001
-2.223 -3.3870001 2.0550001
-2.4030001 -3.3740001 2.115
-1.803 -3.4419999 1.929
-1.96 -3.425 1.98
-2.1240001 -3.4000001 2.03
-2.2939999 -3.378 2.0780001
-1.717 -3.4619999 1.92
-1.8660001 -3.434 1.96
-2.027 -3.4119999 2.006
-2.1930001 -3.392 2.0480001
-1.628 -3.473 1.908
-1.774 -3.4449999 1.942
-1.933 -3.428 1.984
-2.095 -3.4059999 2.02
-1.539 -3.483 1.896
-1.686 -3.46 1.928
-1.839 -3.438 1.962
-1.998 -3.421 1.994
-1.455 -3.5020001 1.89
-1.599 -3.4779999 1.9170001
-1.748 -3.4530001 1.943
-1.905 -3.438 1.971
0 0 0
-1.5089999 -3.4849999 1.901
-1.6569999 -3.4630001 1.924
-1.806 -3.4430001 1.942
0 0 0
-1.429 -3.5109999 1.896
-1.569 -3.4760001 1.9069999
-1.712 -3.4519999 1.918
0 0 0
0 0 0
-1.4809999 -3.4890001 1.891
-1.623 -3.47 1.9
-1.119 -3.5420001 1.86
0 0 0
0 0 0
-1.535 -3.4849999 1.881
0 0 0
-1.171 -3.533 1.859
0 0 0
-1.4450001 -3.4960001 1.862
0 0 0
-1.089 -3.5469999 1.851
0 0 0
0 0 0
0 0 0
0 0 0
-1.137 -3.5339999 1.835
0 0 0
0 0 0
0 0 0
0 0 0
-1.182 -3.5309999 1.812
0 0 0
0 0 0
0 0 0
-1.096 -3.54 1.796
0 0 0
0 0 0
0 0 0
0 0 0
0 0 0
0 0 0
0 0 0
0 0 0
-0.022 -0.169 0.086000003
0 0 0
0 0 0
0 0 0
0 0 0
0 0 0
0 0 0
0 0 0
0 0 0
-0.021 -0.18000001 0.090000004
0 0 0
0 0 0
-0.241 -3.6619999 1.855
-0.38100001 -3.869 1.926
0 0 0
0 0 0
-0.162 -3.6670001 1.857
-0.28400001 -3.717 1.846
0 0 0
0 0 0
-0.082999997 -3.677 1.862
-0.198 -3.6659999 1.816
-0.331 -3.8729999 1.876
0 0 0
-0.0040000002 -3.688 1.868
-0.117 -3.6730001 1.816
-0.229 -3.661 1.766
-0.354 -3.8710001 1.819
0.075999998 -3.6989999 1.875
-0.035999998 -3.6830001 1.818
-0.146 -3.6730001 1.766
-0.249 -3.6600001 1.709
0.156 -3.707 1.882
0.045000002 -3.704 1.827
-0.063000001 -3.684 1.765
-0.163 -3.6700001 1.705
0.237 -3.7219999 1.892
0.127 -3.7079999 1.8279999
0.02 -3.6960001 1.766
-0.078000002 -3.6849999 1.704
0.31900001 -3.7309999 1.901
0.20999999 -3.7190001 1.8329999
0.104 -3.707 1.768
0.0080000004 -3.6889999 1.699
0.40000001 -3.7309999 1.905
0.294 -3.733 1.842
0.19 -3.721 1.771
0.093999997 -3.7 1.698
0.484 -3.7539999 1.923
0.37799999 -3.7379999 1.845
0.27500001 -3.724 1.771
0.183 -3.7160001 1.7
0.56699997 -3.763 1.934
0.463 -3.7460001 1.852
0.361 -3.7320001 1.774
0.271 -3.7290001 1.701
0.65100002 -3.7679999 1.943
0.55000001 -3.7650001 1.864
0.44999999 -3.75 1.7819999
0.36000001 -3.7309999 1.699
0.73799998 -3.7839999 1.96
0.63800001 -3.777 1.874
0.53899997 -3.7609999 1.788
0.45100001 -3.7460001 1.7029999
0.824 -3.789 1.971
0.72600001 -3.7869999 1.885
0.63 -3.776 1.796
0.54299998 -3.7590001 1.7079999
0.91100001 -3.796 1.985
0.81400001 -3.7920001 1.893
0.72100002 -3.7880001 1.8049999
0.63499999 -3.7650001 1.711
1.002 -3.812 2.0050001
0.90499997 -3.8039999 1.9069999
0.81300002 -3.8 1.814
0.73100001 -3.786 1.72
1.091 -3.8180001 2.02
0.99800003 -3.816 1.921
0.90700001 -3.809 1.823
0.82800001 -3.799 1.727
1.186 -3.839 2.043
1.095 -3.8380001 1.941
1.0039999 -3.822 1.835
0.92299998 -3.802 1.732
1.28 -3.8469999 2.0610001
1.1900001 -3.8469999 1.955
1.101 -3.8329999 1.847
1.025 -3.8210001 1.744
1.309 -3.6730001 1.982
1.283 -3.842 1.964
1.2029999 -3.8540001 1.865
1.127 -3.8340001 1.755
1.337 -3.5109999 1.909
1.312 -3.658 1.882
1.2869999 -3.813 1.854
1.232 -3.8499999 1.768
1.359 -3.3529999 1.839
1.337 -3.4820001 1.803
1.3150001 -3.618 1.768
1.303 -3.7620001 1.735
1.375 -3.1930001 1.766
1.357 -3.3139999 1.729
1.34 -3.438 1.691
1.332 -3.5669999 1.653
1.391 -3.0510001 1.7029999
1.378 -3.1630001 1.663
1.3609999 -3.2679999 1.618
1.3559999 -3.3829999 1.576
1.4119999 -2.9300001 1.651
1.395 -3.0179999 1.6
1.3789999 -3.108 1.55
1.376 -3.2079999 1.5039999
1.4299999 -2.812 1.6
1.4119999 -2.885 1.544
1.401 -2.9690001 1.492
1.391 -3.043 1.436
1.4450001 -2.698 1.552
1.431 -2.7679999 1.495
1.421 -2.8410001 1.4400001
1.415 -2.9089999 1.383
1.461 -2.5940001 1.5089999
1.449 -2.655 1.449
1.438 -2.717 1.39
1.437 -2.7809999 1.3329999
1.474 -2.4909999 1.466
1.461 -2.5409999 1.402
1.456 -2.6040001 1.345
1.4529999 -2.654 1.284
1.487 -2.395 1.426
1.48 -2.447 1.365
1.473 -2.4960001 1.303
1.469 -2.5369999 1.24
1.501 -2.3069999 1.392
1.492 -2.3469999 1.325
1.4859999 -2.3900001 1.262
1.485 -2.4289999 1.199
1.512 -2.2190001 1.357
1.503 -2.253 1.288
1.5 -2.2920001 1.225
1.497 -2.3210001 1.16
1.524 -2.1370001 1.325
1.518 -2.1689999 1.257
1.51 -2.1949999 1.188
1.51 -2.223 1.124
1.538 -2.062 1.298
1.529 -2.085 1.225
1.524 -2.109 1.1569999
1.524 -2.131 1.092
1.544 -1.9809999 1.266
1.54 -2.0050001 1.196
1.538 -2.0280001 1.1289999
1.538 -2.043 1.062
1.5549999 -1.91 1.24
1.551 -1.929 1.169
1.5470001 -1.9450001 1.099
1.544 -1.9529999 1.031
1.564 -1.839 1.214
1.562 -1.8559999 1.1440001
1.559 -1.868 1.073
1.561 -1.8789999 1.008
1.576 -1.776 1.193
1.568 -1.7819999 1.117
1.574 -1.8 1.052
1.576 -1.807 0.986
1.585 -1.712 1.17
1.584 -1.721 1.098
1.58 -1.725 1.026
1.58 -1.725 0.958
1.5930001 -1.648 1.149
1.591 -1.653 1.075
1.591 -1.6569999 1.005
1.597 -1.661 0.94099998
1.603 -1.589 1.1289999
1.603 -1.592 1.056
1.604 -1.595 0.98699999
1.605 -1.59 0.91900003
1.6160001 -1.535 1.113
1.614 -1.533 1.038
1.61 -1.529 0.96600002
1.612 -1.523 0.89999998
1.619 -1.473 1.092
1.618 -1.47 1.018
1.622 -1.47 0.94999999
1.618 -1.455 0.88
1.627 -1.418 1.075
1.626 -1.413 1.001
1.62 -1.401 0.92699999
1.6210001 -1.3890001 0.861
1.6339999 -1.365 1.059
1.637 -1.36 0.98699999
1.6339999 -1.347 0.91399997
1.631 -1.331 0.84600002
1.633 -1.306 1.038
1.64 -1.301 0.96799999
1.638 -1.288 0.89700001
1.6390001 -1.273 0.83200002
1.645 -1.2589999 1.027
1.6440001 -1.2460001 0.95200002
1.645 -1.232 0.88200003
1.648 -1.216 0.81800002
1.648 -1.207 1.011
1.653 -1.194 0.93900001
1.654 -1.1799999 0.87
1.658 -1.163 0.80699998
1.656 -1.159 0.99800003
1.663 -1.146 0.92799997
1.661 -1.127 0.85799998
1.661 -1.1059999 0.792
1.666 -1.113 0.98799998
1.663 -1.092 0.912
1.669 -1.076 0.84600002
1.677 -1.059 0.78500003
1.668 -1.064 0.97299999
1.677 -1.049 0.90499997
1.678 -1.028 0.83600003
1.676 -1.002 0.77100003
1.677 -1.02 0.96399999
1.684 -1.001 0.89399999
1.682 -0.977 0.82499999
1.6849999 -0.95300001 0.76200002
1.6849999 -0.97600001 0.954
1.687 -0.95300001 0.88200003
1.687 -0.92799997 0.81400001
1.6950001 -0.90499997 0.75400001
1.686 -0.92900002 0.94099998
1.697 -0.90799999 0.875
1.6289999 -0.847 0.77399999
1.7 -0.85500002 0.745
1.6849999 -0.88200003 0.92799997
1.697 -0.86000001 0.86199999
1.6619999 -0.815 0.778
1.7130001 -0.81 0.74000001
1.655 -0.82099998 0.89899999
1.7130001 -0.81999999 0.85900003
1.714 -0.79100001 0.792
1.715 -0.76099998 0.73100001
1.677 -0.78799999 0.89999998
1.711 -0.77200001 0.847
1.717 -0.745 0.78299999
1.72 -0.71399999 0.72399998
1.704 -0.75599998 0.903
1.722 -0.73100001 0.84200001
1.729 -0.70200002 0.77899998
1.724 -0.667 0.71600002
1.719 -0.71899998 0.89999998
1.727 -0.68800002 0.83399999
1.7309999 -0.65600002 0.77100003
1.7359999 -0.62400001 0.71399999
1.725 -0.67900002 0.89399999
1.732 -0.64499998 0.82800001
1.7359999 -0.61199999 0.76499999
1.74 -0.57800001 0.70700002
1.727 -0.63700002 0.88499999
1.7309999 -0.60100001 0.81900001
1.739 -0.56800002 0.75800002
1.745 -0.53299999 0.70300001
1.733 -0.597 0.87900001
1.739 -0.56 0.81400001
1.752 -0.52700001 0.75599998
1.756 -0.49000001 0.69999999
1.7410001 -0.55800003 0.87400001
1.7460001 -0.51899999 0.80900002
1.757 -0.484 0.75199997
1.757 -0.44499999 0.69499999
1.747 -0.51899999 0.86900002
1.753 -0.479 0.80500001
1.757 -0.44 0.745
1.763 -0.40200001 0.69199997
1.752 -0.479 0.86400002
1.76 -0.43799999 0.80199999
1.7640001 -0.398 0.74299997
1.767 -0.35699999 0.68800002
1.755 -0.43900001 0.85799998
1.7690001 -0.398 0.79900002
1.772 -0.35699999 0.74000001
1.772 -0.31400001 0.68599999
1.763 -0.40099999 0.85500002
1.773 -0.35699999 0.796
1.778 -0.31400001 0.73799998
1.783 -0.271 0.68599999
1.773 -0.36300001 0.85299999
1.777 -0.31600001 0.792
1.78 -0.27200001 0.73400003
1.785 -0.228 0.68300003
1.773 -0.32300001 0.847
1.785 -0.27599999 0.79000002
1.785 -0.23 0.73199999
1.793 -0.185 0.68300003
1.7819999 -0.285 0.84500003
1.791 -0.236 0.78799999
1.793 -0.18799999 0.73199999
1.799 -0.142 0.68300003
1.786 -0.24600001 0.84200001
1.7970001 -0.19599999 0.787
1.798 -0.146 0.73100001
1.802 -0.097999997 0.68199998
1.791 -0.207 0.83899999
1.802 -0.155 0.78500003
1.8049999 -0.105 0.73100001
1.811 -0.055 0.68300003
1.796 -0.168 0.83700001
1.806 -0.114 0.78299999
1.812 -0.061999999 0.73100001
1.819 -0.011 0.685
1.8049999 -0.12899999 0.83700001
1.809 -0.072999999 0.78100002
1.822 -0.018999999 0.73299998
1.7690001 0.030999999 0.66500002
1.808 -0.089000002 0.83399999
1.821 -0.032000002 0.78399998
1.789 0.022 0.71799999
1.777 0.074000001 0.66799998
1.816 -0.050000001 0.83399999
1.825 0.0089999996 0.78299999
1.664 0.059 0.667
1.795 0.118 0.67500001
1.821 -0.0099999998 0.83399999
1.689 0.046 0.72299999
1.785 0.105 0.71499997
0 0 0
1.7359999 0.027000001 0.792
1.829 0.092 0.78200001
0 0 0
1.206 0.138 0.454
1.8200001 0.068999998 0.82800001
1.648 0.12 0.70300001
1.207 0.12800001 0.48300001
1.808 0.25099999 0.68300003
1.835 0.11 0.833
1.199 0.115 0.51099998
1.675 0.21799999 0.671
1.817 0.29699999 0.68699998
1.7589999 0.14399999 0.796
1.628 0.193 0.69400001
1.643 0.25299999 0.65899998
1.825 0.34400001 0.69300002
1.216 0.127 0.55000001
1.8380001 0.26100001 0.78399998
1.637 0.292 0.65799999
1.836 0.39199999 0.69999999
1.691 0.214 0.76300001
1.777 0.294 0.75800002
1.835 0.37200001 0.74000001
1.844 0.44 0.70599997
1.789 0.26699999 0.80699998
0 0 0
1.834 0.41600001 0.74199998
1.85 0.48800001 0.71200001
1.772 0.30399999 0.80000001
1.88 0.39899999 0.80400002
1.865 0.47 0.75700003
1.85 0.53600001 0.71600002
0 0 0
1.878 0.44400001 0.80500001
1.891 0.52399999 0.77100003
1.863 0.58899999 0.72600001
1.767 0.38499999 0.79799998
1.8890001 0.493 0.81199998
1.908 0.57700002 0.78200001
1.86 0.63700002 0.73000002
1.8660001 0.44999999 0.84299999
1.898 0.542 0.81900001
1.906 0.62599999 0.78600001
1.864 0.68900001 0.73799998
1.7410001 0.46200001 0.78799999
1.9 0.58999997 0.82300001
1.913 0.67799997 0.79400003
0 0 0
1.671 0.48300001 0.75800002
1.822 0.61199999 0.79299998
1.852 0.70499998 0.77399999
1.931 0.82099998 0.77899998
1.6720001 0.52399999 0.76099998
1.756 0.63499999 0.76800001
1.802 0.73500001 0.75800002
1.943 0.88099998 0.79100001
1.666 0.56300002 0.76099998
1.717 0.66500002 0.755
1.78 0.77499998 0.75599998
1.949 0.94 0.80199999
1.655 0.60100001 0.75800002
1.702 0.70499998 0.75300002
1.9220001 0.89099997 0.82300001
1.965 1.007 0.81900001
1.651 0.64300001 0.75999999
1.747 0.77100003 0.77899998
1.951 0.96100003 0.84399998
1.976 1.072 0.833
1.638 0.68000001 0.75800002
1.897 0.88999999 0.852
1.966 1.026 0.85900003
1.982 1.138 0.847
1.636 0.72299999 0.76099998
1.9349999 0.963 0.87599999
1.97 1.0880001 0.87
1.994 1.209 0.86400002
1.926 0.903 0.90100002
1.972 1.038 0.90100002
1.989 1.16 0.889
1.997 1.276 0.87800002
1.887 0.93699998 0.889
1.977 1.1 0.912
1.993 1.225 0.90200001
1.726 1.161 0.77100003
1.97 1.035 0.935
1.997 1.171 0.93099999
2.0079999 1.3 0.921
1.666 1.179 0.75599998
1.951 1.082 0.93300003
1.9400001 1.199 0.91399997
1.989 1.355 0.92500001
0 0 0
1.572 0.91900003 0.75800002
1.571 1.022 0.74900001
1.599 1.145 0.755
0 0 0
1.5549999 0.95700002 0.75700003
1.558 1.0650001 0.75199997
1.567 1.179 0.75199997
0 0 0
1.535 0.99400002 0.755
1.539 1.105 0.75300002
0 0 0
0 0 0
1.441 0.98000002 0.71600002
1.306 0.98400003 0.648
0 0 0
1.355 1.223 0.67799997
1.3099999 0.935 0.65899998
1.313 1.038 0.66100001
1.327 1.152 0.671
1.344 1.271 0.68699998
1.299 0.97299999 0.66100001
1.316 1.091 0.67400002
1.341 1.22 0.69199997
0 0 0
1.317 1.034 0.67900002
1.3329999 1.1569999 0.69400001
0 0 0
0 0 0
0 0 0
1.336 1.216 0.708
1.393 1.391 0.75
1.4 1.525 0.76999998
0 0 0
1.37 1.3049999 0.73900002
1.391 1.455 0.76599997
1.383 1.579 0.78100002
0 0 0
1.388 1.386 0.764
1.421 1.558 0.801
1.9349999 2.3169999 1.124
1.375 1.301 0.75400001
1.401 1.465 0.78799999
1.385 1.591 0.801
1.785 2.2420001 1.068
1.408 1.395 0.78600001
1.429 1.5650001 0.82099998
1.949 2.348 1.1569999
1.567 2.0650001 0.96700001
1.406 1.4579999 0.80000001
1.386 1.59 0.815
1.8890001 2.3870001 1.153
1.49 2.0610001 0.94999999
1.437 1.561 0.83399999
1.924 2.313 1.16
1.776 2.3529999 1.1160001
1.941 2.8199999 1.279
1.391 1.5829999 0.82499999
1.872 2.3599999 1.158
1.499 2.086 0.972
1.868 2.855 1.276
1.381 1.647 0.83700001
1.8099999 2.395 1.151
1.937 2.832 1.2970001
1.7920001 2.8829999 1.27
1.872 2.342 1.163
0 0 0
1.853 2.849 1.283
1.722 2.9189999 1.27
1.8150001 2.382 1.156
1.938 2.829 1.308
1.784 2.8889999 1.281
1.645 2.9419999 1.2640001
1.751 2.4119999 1.145
1.8559999 2.848 1.293
1.715 2.9260001 1.279
1.553 2.9349999 1.2460001
1.946 2.816 1.3099999
1.789 2.8900001 1.289
1.6339999 2.9419999 1.268
1.4630001 2.928 1.23
1.8710001 2.848 1.298
1.719 2.928 1.284
1.548 2.947 1.253
1.3710001 2.9100001 1.21
1.799 2.8829999 1.288
1.637 2.9419999 1.27
1.457 2.9360001 1.233
1.286 2.9000001 1.194
1.725 2.914 1.279
1.553 2.95 1.255
1.3609999 2.9089999 1.207
1.214 2.9189999 1.191
1.649 2.9400001 1.267
1.457 2.9330001 1.229
1.278 2.9059999 1.192
1.15 2.954 1.196
1.5599999 2.9389999 1.245
1.363 2.9100001 1.2029999
1.21 2.931 1.1900001
1.086 2.9879999 1.201
1.466 2.928 1.22
1.28 2.9059999 1.187
1.145 2.967 1.193
1.015 3.007 1.201
1.369 2.901 1.1900001
1.2079999 2.925 1.179
1.076 2.9920001 1.192
0.94199997 3.0179999 1.197
1.289 2.905 1.174
1.145 2.967 1.182
1.006 3.0150001 1.191
0.87400001 3.04 1.199
1.216 2.9260001 1.165
1.0779999 3 1.182
0.93300003 3.029 1.187
0.80400002 3.059 1.201
1.153 2.97 1.166
1.006 3.0209999 1.177
0.86299998 3.05 1.186
0.73500001 3.086 1.205
1.0829999 3 1.1619999
0.93099999 3.0309999 1.17
0.79500002 3.0769999 1.189
0.662 3.0899999 1.202
1.0089999 3.0179999 1.154
0.86199999 3.059 1.17
0.72399998 3.098 1.189
0.59200001 3.1040001 1.2029999
0.93699998 3.04 1.149
0.79100001 3.0799999 1.168
0.64999998 3.1010001 1.184
0.52100003 3.118 1.206
0.866 3.063 1.145
0.71899998 3.098 1.165
0.579 3.1170001 1.184
0.44999999 3.128 1.207
0.792 3.079 1.1390001
0.64600003 3.109 1.161
0.50599998 3.125 1.182
0.38 3.1370001 1.2079999
0.72000003 3.102 1.136
0.57200003 3.115 1.155
0.435 3.141 1.183
0.31 3.155 1.2130001
0.64300001 3.105 1.126
0.498 3.1240001 1.151
0.36300001 3.154 1.184
0.23800001 3.1659999 1.217
0.56999999 3.1210001 1.122
0.42699999 3.151 1.154
0.28999999 3.1619999 1.184
0.167 3.1700001 1.2180001
0.495 3.135 1.118
0.35299999 3.158 1.151
0.21799999 3.1670001 1.183
0.096000001 3.187 1.225
0.421 3.152 1.1160001
0.27900001 3.1689999 1.15
0.146 3.1819999 1.187
0.024 3.1949999 1.229
0.34599999 3.158 1.11
0.206 3.1789999 1.149
0.072999999 3.1860001 1.187
-0.046999998 3.2 1.233
0.27000001 3.1670001 1.1059999
0.132 3.1860001 1.148
0 3.1960001 1.1900001
-0.119 3.2160001 1.2410001
0.19400001 3.174 1.102
0.057 3.1900001 1.146
-0.071999997 3.2060001 1.193
-0.193 3.2290001 1.249
0.119 3.1900001 1.102
-0.017000001 3.198 1.146
-0.146 3.221 1.2
-0.266 3.2390001 1.257
0.041999999 3.197 1.099
-0.092 3.21 1.149
-0.221 3.2320001 1.205
-0.34099999 3.256 1.267
-0.033 3.2019999 1.097
-0.167 3.221 1.151
-0.29699999 3.247 1.212
-0.41499999 3.2650001 1.276
-0.11 3.211 1.097
-0.244 3.233 1.156
-0.37400001 3.263 1.221
-0.49200001 3.2750001 1.285
-0.18799999 3.2260001 1.099
-0.322 3.247 1.161
-0.45100001 3.2780001 1.23
-0.56999999 3.2980001 1.301
-0.26800001 3.2490001 1.104
-0.40200001 3.28 1.173
-0.53100002 3.2980001 1.2410001
-0.64899999 3.316 1.3150001
-0.34900001 3.2709999 1.1109999
-0.48500001 3.306 1.184
-0.61000001 3.3069999 1.249
-0.72899997 3.326 1.326
-0.43200001 3.302 1.12
-0.56400001 3.3069999 1.187
-0.69300002 3.332 1.2640001
-0.51599997 2.128 0.85399997
-0.51499999 3.3110001 1.123
-0.648 3.3299999 1.198
-0.495 2.132 0.81300002
-0.56300002 2.1170001 0.85500002
-0.59799999 3.3180001 1.126
-0.73199999 3.3440001 1.207
-0.54400003 2.1229999 0.81400001
-0.62199998 2.1470001 0.87400001
-0.68599999 3.345 1.137
-0.51899999 2.128 0.77100003
-0.59299999 2.1159999 0.81599998
-0.67699999 2.155 0.884
-0.48899999 2.125 0.72299999
-0.57499999 2.141 0.778
-0.65499997 2.1470001 0.833
-0.73500001 2.171 0.89700001
-0.54500002 2.128 0.72600001
-0.63099998 2.1470001 0.78500003
-0.71200001 2.155 0.84200001
-0.79000002 2.177 0.90799999
-0.602 2.1370001 0.73199999
-0.68800002 2.1530001 0.79100001
-0.77100003 2.168 0.85399997
-0.84600002 2.1789999 0.917
-0.66299999 2.152 0.74000001
-0.74699998 2.1630001 0.80000001
-0.83200002 2.1819999 0.866
-0.90700001 2.191 0.93099999
-0.72299999 2.1600001 0.74599999
-0.80800003 2.1730001 0.80900002
-0.88999999 2.1849999 0.875
-0.96700001 2.2 0.94499999
-0.78399998 2.1689999 0.75300002
-0.87 2.1830001 0.81900001
-0.954 2.197 0.88800001
-1.03 2.21 0.95999998
-0.85100001 2.1849999 0.76300001
-0.93199998 2.1889999 0.82800001
-1.02 2.21 0.903
-1.094 2.217 0.97399998
-0.91299999 2.1889999 0.76999998
-1 2.2019999 0.83999997
-1.082 2.2130001 0.91299999
-1.159 2.2249999 0.98900002
-0.98100001 2.201 0.77999997
-1.068 2.214 0.85299999
-1.148 2.2179999 0.92500001
-1.22 2.223 1.001
-1.05 2.2090001 0.79000002
-1.136 2.22 0.86400002
-1.2180001 2.2279999 0.94099998
-1.99 3.4430001 1.5700001
-1.1210001 2.2190001 0.801
-1.2079999 2.2309999 0.87800002
-1.2920001 2.243 0.95899999
-2.0910001 3.444 1.592
-1.196 2.2320001 0.81300002
-1.279 2.237 0.88999999
-1.3609999 2.244 0.972
-2.2090001 3.464 1.625
-1.274 2.2449999 0.82700002
-1.359 2.253 0.90799999
-1.441 2.26 0.99299997
-2.3329999 3.49 1.6619999
-1.35 2.25 0.838
-1.444 2.2720001 0.92799997
-2.335 3.484 1.553
-2.503 3.573 1.728
-1.434 2.2639999 0.85399997
-1.524 2.277 0.94300002
-2.4990001 3.5539999 1.609
-2.608 3.5550001 1.747
-1.523 2.2809999 0.87199998
-1.609 2.2880001 0.96200001
-2.6370001 3.575 1.6440001
-2.7309999 3.5580001 1.778
-1.612 2.2920001 0.889
-1.7 2.3010001 0.98299998
-2.7639999 3.576 1.6720001
-2.872 3.5780001 1.8200001
-1.709 2.309 0.90899998
-1.791 2.309 1.003
-2.914 3.5999999 1.7130001
-3.0090001 3.586 1.857
-1.808 2.323 0.93000001
-2.938 3.6110001 1.596
-3.049 3.599 1.745
-3.1470001 3.5910001 1.896
-1.916 2.342 0.954
-3.0929999 3.625 1.632
-3.204 3.6129999 1.786
-3.3199999 3.6270001 1.9529999
-2.0250001 2.3559999 0.97799999
-3.2550001 3.6389999 1.67
-3.3729999 3.6359999 1.834
-3.5050001 3.6659999 2.0150001
-2.135 2.3659999 1.001
-3.4330001 3.6630001 1.715
-3.5710001 3.681 1.896
-3.7 3.7060001 2.0810001
-3.5120001 3.7090001 1.602
-3.641 3.7079999 1.774
-3.7950001 3.7390001 1.9680001
-3.898 3.74 2.1470001
-3.753 3.7750001 1.666
-3.878 3.7690001 1.845
-3.9679999 3.7379999 2.0139999
-4.0510001 3.7219999 2.187
-3.9530001 3.7880001 1.711
-4.0409999 3.7479999 1.878
-4.1360002 3.7249999 2.0550001
-4.2490001 3.7379999 2.25
-4.1069999 3.75 1.7359999
-4.2199998 3.7349999 1.919
-4.3460002 3.7420001 2.118
-4.4640002 3.76 2.3199999
-4.342 3.7750001 1.7920001
-4.5029998 3.803 2.0050001
-4.6389999 3.816 2.217
-4.7129998 3.799 2.4070001
-4.658 3.8570001 1.882
-4.7550001 3.8299999 2.075
-4.823 3.79 2.263
-4.868 3.753 2.444
-4.8569999 3.8280001 1.9220001
-4.9299998 3.7839999 2.1110001
-4.9809999 3.737 2.2969999
-5.085 3.7490001 2.5109999
-5.066 3.7980001 1.965
-5.1529999 3.7679999 2.1659999
-5.2859998 3.7820001 2.3959999
-5.4109998 3.813 2.631
-5.3759999 3.8299999 2.046
-5.513 3.8380001 2.2780001
-5.625 3.839 2.51
-5.7709999 3.885 2.7650001
-5.737 3.882 2.145
-5.849 3.8740001 2.3770001
-5.9590001 3.875 2.618
-6.0840001 3.9070001 2.872
-6.1900001 3.9749999 2.276
-6.2870002 3.9560001 2.516
-6.3829999 3.951 2.7650001
-6.4650002 3.9590001 3.0109999
-6.3930001 3.891 2.313
-8.3240004 4.9720001 3.2820001
-7.2919998 4.29 3.1140001
-6.8280001 3.983 3.1389999
-8.3669996 4.8179998 2.9809999
-8.3830004 4.7480001 3.2590001
-7.448 4.1609998 3.1389999
-6.8860002 3.822 3.1259999
-8.4139996 4.579 2.9560001
-8.2080002 4.3990002 3.148
-7.5840001 4.0190001 3.1559999
-6.973 3.675 3.1259999
-8.4200001 4.323 2.9189999
-8.3990002 4.2540002 3.181
-7.6350002 3.8310001 3.1400001
-6.974 3.4879999 3.0910001
-8.467 4.0910001 2.8970001
-8.4379997 4.0310001 3.158
-7.6729999 3.6359999 3.118
-8.474 4.013 3.7149999
-8.5080004 3.862 2.8770001
-8.4610004 3.8039999 3.131
-7.7509999 3.464 3.1170001
-8.5229998 3.816 3.698
-8.4949999 3.612 2.8410001
-8.5220003 3.595 3.119
-8.5229998 3.5840001 3.392
-8.5459995 3.6070001 3.6689999
-8.5609999 3.4000001 2.835
-8.5629997 3.381 3.1040001
-8.5550003 3.3759999 3.3729999
-8.5550003 3.398 3.638
-8.5959997 3.175 2.8180001
-8.592 3.165 3.085
-8.5810003 3.1659999 3.3510001
-8.5760002 3.1960001 3.615
-8.6289997 2.954 2.8039999
-8.618 2.9489999 3.0669999
-8.6169996 2.964 3.3369999
-8.618 3.0020001 3.5999999
-8.6560001 2.733 2.7909999
-8.6520004 2.7390001 3.0550001
-8.6450005 2.76 3.3210001
-8.6389999 2.803 3.579
-8.6920004 2.516 2.7809999
-8.6890001 2.5320001 3.0450001
-8.677 2.5580001 3.3069999
-8.6709995 2.6110001 3.5650001
-8.7189999 2.299 2.7709999
-8.7110004 2.322 3.033
-8.7019997 2.3570001 3.2939999
-8.6990004 2.418 3.5510001
-8.743 2.0829999 2.7620001
-8.7399998 2.1129999 3.023
-8.7340002 2.158 3.2850001
-8.724 2.224 3.536
-8.6940002 1.852 2.7320001
-8.7659998 1.9069999 3.0150001
-8.75 1.957 3.2709999
-8.7539997 2.033 3.526
-8.7469997 1.645 2.7360001
-8.5480003 1.654 2.9260001
-8.3760004 1.678 3.1129999
-8.7779999 1.842 3.5139999
-8.7700005 1.433 2.7320001
-8.5950003 1.459 2.9289999
-8.3929996 1.489 3.105
-8.8059998 1.651 3.5039999
-8.79 1.222 2.73
-8.6280003 1.2589999 2.927
-8.4209995 1.302 3.1010001
-8.8280001 1.461 3.4949999
-8.8240004 1.011 2.7320001
-8.6700001 1.062 2.9319999
-8.4399996 1.112 3.0940001
-8.8439999 1.27 3.4849999
-8.8450003 0.80000001 2.734
-8.7030001 0.86400002 2.9349999
-8.4759998 0.926 3.096
-8.8610001 1.0779999 3.4749999
-8.8839998 0.59100002 2.7420001
-8.7229996 0.662 2.9349999
-8.4949999 0.73900002 3.0940001
-8.8940001 0.889 3.474
-8.9040003 0.38 2.7460001
-8.7449999 0.46200001 2.937
-8.5310001 0.55000001 3.098
-8.9239998 0.69999999 3.474
-8.9239998 0.169 2.7520001
-8.7709999 0.26199999 2.9419999
-8.5570002 0.361 3.1010001
-8.934 0.509 3.4660001
-8.9630003 -0.044 2.7650001
-8.776 0.059999999 2.9430001
-8.5760002 0.17200001 3.102
-8.9700003 0.31900001 3.47
-8.9840002 -0.257 2.7750001
-8.8009996 -0.142 2.95
-8.6020002 -0.017999999 3.108
-8.9980001 0.126 3.4719999
-9.0240002 -0.47400001 2.7909999
-8.7959995 -0.34400001 2.9489999
-8.6280003 -0.20900001 3.1140001
-8.9180002 -0.064999998 3.434
-9.0539999 -0.69099998 2.8069999
-8.8100004 -0.54799998 2.9560001
-8.6459999 -0.40200001 3.1199999
-8.9829998 -0.25999999 3.4530001
-9.0719995 -0.90899998 2.8210001
-8.7989998 -0.75 2.9579999
-7.8429999 -0.53899997 2.8299999
-9.0059996 -0.454 3.457
-9.1149998 -1.133 2.8440001
-8.8050003 -0.954 2.9660001
-8.7080002 -0.792 3.145
-7.4790001 -0.537 2.869
-9.1280003 -1.353 2.8610001
-8.8240004 -1.161 2.98
-8.7259998 -0.991 3.154
-9.1420002 -0.85500002 3.5050001
-9.2390003 -1.594 2.9100001
-8.8380003 -1.369 2.994
-8.7589998 -1.191 3.171
-9.1709995 -1.056 3.516
-9.2720003 -1.826 2.9360001
-9.2390003 -1.65 3.141
-8.8129997 -1.4 3.1949999
-9.1969995 -1.262 3.526
-9.2919998 -2.0599999 2.9590001
-9.2749996 -1.876 3.1659999
-9.243 -1.679 3.3599999
-9.2399998 -1.47 3.546
-9.3439999 -2.3039999 2.9960001
-9.3009996 -2.105 3.1900001
-9.2749996 -1.898 3.382
-9.2460003 -1.678 3.552
-9.0139999 -2.448 2.9119999
-9.3280001 -2.336 3.2160001
-9.3079996 -2.1199999 3.405
-9.2740002 -1.89 3.5680001
-8.5190001 -2.53 2.773
-8.9429998 -2.4579999 3.102
-9.3260002 -2.3429999 3.4260001
-9.3199997 -2.109 3.592
-8.033 -2.592 2.638
-8.441 -2.5280001 2.9460001
-8.941 -2.4590001 3.2980001
-9.335 -2.325 3.608
-7.5939999 -2.6500001 2.516
-7.9530001 -2.5810001 2.7950001
-8.4370003 -2.523 3.1270001
-8.9779997 -2.4449999 3.4790001
-7.2179999 -2.711 2.415
-7.5679998 -2.6489999 2.6800001
-7.9949999 -2.5869999 2.9779999
-8.5139999 -2.517 3.3099999
-6.849 -2.757 2.316
-7.1900001 -2.7030001 2.5669999
-7.5689998 -2.6359999 2.8369999
-8.0609999 -2.575 3.145
-6.5229998 -2.8039999 2.23
-6.8449998 -2.7539999 2.4649999
-7.2150002 -2.6930001 2.7219999
-7.6739998 -2.6359999 3.007
-6.2210002 -2.848 2.152
-6.5180001 -2.796 2.369
-6.8720002 -2.74 2.6099999
-7.2880001 -2.681 2.869
-5.9299998 -2.8840001 2.0769999
-6.2199998 -2.8369999 2.283
-6.5560002 -2.786 2.5079999
-6.961 -2.733 2.7539999
-5.665 -2.921 2.01
-5.96 -2.8840001 2.211
-6.2709999 -2.8299999 2.4189999
-6.6409998 -2.7750001 2.642
-5.4289999 -2.961 1.9529999
-5.6880002 -2.915 2.1329999
-6 -2.8710001 2.3340001
-6.3540001 -2.8199999 2.543
-5.198 -2.9949999 1.898
-5.4460001 -2.948 2.066
-5.7420001 -2.9059999 2.2539999
-6.086 -2.8610001 2.4519999
-4.9759998 -3.023 1.845
-5.2220001 -2.984 2.006
-5.5040002 -2.941 2.181
-5.8189998 -2.8929999 2.3610001
-4.7740002 -3.0539999 1.798
-5.0040002 -3.0120001 1.948
-5.2729998 -2.9690001 2.112
-5.585 -2.9289999 2.2839999
-4.5749998 -3.0780001 1.753
-4.7919998 -3.0339999 1.891
-5.0640001 -3.0009999 2.05
-5.3590002 -2.9619999 2.21
-4.3920002 -3.1040001 1.712
-4.6139998 -3.0699999 1.847
-4.8540001 -3.026 1.988
-5.152 -2.9960001 2.1429999
-4.2199998 -3.1329999 1.676
-4.4369998 -3.099 1.804
-4.6659999 -3.0550001 1.9349999
-4.9450002 -3.0239999 2.076
-4.0469999 -3.1530001 1.638
-4.2579999 -3.1210001 1.7589999
-4.487 -3.0829999 1.8839999
-4.7449999 -3.046 2.013
-3.8800001 -3.1689999 1.602
-4.099 -3.151 1.722
-4.322 -3.1140001 1.84
-4.5630002 -3.073 1.956
-3.734 -3.1960001 1.574
-3.9260001 -3.161 1.678
-4.151 -3.1329999 1.793
-4.401 -3.1059999 1.908
-3.585 -3.2149999 1.545
-3.773 -3.181 1.643
-3.9890001 -3.152 1.749
-4.217 -3.1170001 1.85
-3.447 -3.2349999 1.5190001
-3.631 -3.2049999 1.612
-3.8340001 -3.1719999 1.7079999
-4.0619998 -3.1429999 1.8049999
-3.312 -3.256 1.495
-3.4920001 -3.2249999 1.581
-3.6849999 -3.1900001 1.669
-3.9070001 -3.1630001 1.76
-3.181 -3.2739999 1.472
-3.3559999 -3.244 1.552
-3.5439999 -3.2090001 1.633
-3.7590001 -3.184 1.717
-3.0580001 -3.2950001 1.451
-3.2260001 -3.2639999 1.525
-3.418 -3.237 1.604
-3.6159999 -3.204 1.677
-2.9289999 -3.3050001 1.428
-3.099 -3.279 1.499
-3.283 -3.2509999 1.571
-3.4820001 -3.2249999 1.641
-2.812 -3.323 1.41
-2.9790001 -3.2980001 1.476
-3.161 -3.2750001 1.544
-3.3559999 -3.2490001 1.608
-2.694 -3.3340001 1.39
-2.858 -3.312 1.452
-3.0380001 -3.289 1.515
-3.224 -3.263 1.572
-2.5869999 -3.3540001 1.377
-2.7449999 -3.329 1.432
-2.915 -3.302 1.487
-3.102 -3.2820001 1.5420001
-2.4749999 -3.3659999 1.359
-2.6300001 -3.3399999 1.41
-2.7980001 -3.316 1.461
-2.983 -3.3010001 1.512
-2.3670001 -3.3789999 1.345
-2.5220001 -3.359 1.392
-2.684 -3.3299999 1.436
-2.859 -3.3099999 1.479
-2.2679999 -3.398 1.3329999
-2.4170001 -3.3740001 1.375
-2.575 -3.346 1.415
-2.7509999 -3.332 1.455
-2.168 -3.414 1.322
-2.3110001 -3.3840001 1.3559999
-2.4679999 -3.3610001 1.393
-2.638 -3.3440001 1.428
-2.066 -3.4230001 1.309
-2.2160001 -3.408 1.345
-2.3659999 -3.3770001 1.374
-2.526 -3.3529999 1.401
-1.973 -3.441 1.301
-2.1170001 -3.421 1.33
-2.263 -3.3889999 1.354
-2.421 -3.3699999 1.378
-1.877 -3.4519999 1.29
-2.016 -3.428 1.314
-2.1700001 -3.4119999 1.341
-2.319 -3.385 1.357
-1.7819999 -3.46 1.28
-1.92 -3.4400001 1.3
-2.0669999 -3.4200001 1.321
-2.2190001 -3.402 1.336
-1.687 -3.467 1.2690001
-1.826 -3.4530001 1.289
-1.971 -3.4330001 1.3049999
-2.1199999 -3.415 1.316
-1.599 -3.484 1.2640001
-1.732 -3.46 1.276
-1.877 -3.4460001 1.29
-2.023 -3.428 1.2970001
-1.5089999 -3.493 1.256
-1.641 -3.473 1.265
-1.783 -3.457 1.275
-1.924 -3.4349999 1.277
0 0 0
-1.553 -3.4860001 1.256
-1.6900001 -3.464 1.26
-1.8329999 -3.454 1.262
0 0 0
-1.469 -3.507 1.251
-1.601 -3.4790001 1.248
-1.74 -3.467 1.2460001
0 0 0
0 0 0
-1.511 -3.4890001 1.2359999
-1.645 -3.47 1.227
-1.165 -3.5409999 1.237
0 0 0
0 0 0
-1.556 -3.4860001 1.214
-1.082 -3.553 1.234
-1.207 -3.53 1.224
0 0 0
-1.4680001 -3.5020001 1.201
-0.99800003 -3.5580001 1.229
-1.123 -3.543 1.2180001
0 0 0
0 0 0
0 0 0
-1.04 -3.5580001 1.214
-1.165 -3.536 1.1950001
0 0 0
0 0 0
-0.95700002 -3.5680001 1.2079999
-1.082 -3.55 1.188
-1.205 -3.533 1.163
0 0 0
0 0 0
-0.99699998 -3.5569999 1.179
-1.119 -3.5409999 1.152
-0.048 -0.25999999 0.088
0 0 0
0 0 0
-1.035 -3.5610001 1.143
0 0 0
0 0 0
0 0 0
-0.94800001 -3.5669999 1.132
0 0 0
-0.046 -0.266 0.086999997
0 0 0
0 0 0
-0.45199999 -3.816 1.2869999
-0.55699998 -3.6889999 1.214
0 0 0
0 0 0
-0.37099999 -3.8710001 1.303
-0.486 -3.7839999 1.24
0 0 0
0 0 0
-0.27000001 -3.6559999 1.229
-0.40900001 -3.8640001 1.261
-0.51599997 -3.7379999 1.181
-0.044 -0.26100001 0.079000004
-0.19 -3.674 1.235
-0.30500001 -3.674 1.1950001
-0.44499999 -3.8659999 1.214
-0.53799999 -3.6860001 1.113
-0.108 -3.6789999 1.2359999
-0.221 -3.661 1.187
-0.35699999 -3.878 1.211
0 0 0
-0.027000001 -3.6889999 1.24
-0.14 -3.677 1.189
-0.252 -3.6530001 1.135
0 0 0
0.054000001 -3.704 1.245
-0.057999998 -3.6919999 1.192
-0.169 -3.6619999 1.132
-0.27599999 -3.654 1.0779999
0.13500001 -3.711 1.249
0.023 -3.6930001 1.1900001
-0.086000003 -3.687 1.135
-0.19 -3.658 1.071
0.21699999 -3.7249999 1.256
0.107 -3.7119999 1.1950001
-0.003 -3.6949999 1.1339999
-0.106 -3.6730001 1.069
0.301 -3.7460001 1.265
0.19 -3.721 1.197
0.081 -3.6989999 1.131
-0.02 -3.6889999 1.068
0.384 -3.747 1.268
0.27500001 -3.7349999 1.202
0.167 -3.7249999 1.136
0.064999998 -3.7079999 1.068
0.47 -3.7650001 1.278
0.36000001 -3.7460001 1.206
0.25400001 -3.7390001 1.138
0.152 -3.7149999 1.064
0.55400002 -3.766 1.2819999
0.447 -3.7579999 1.21
0.33899999 -3.7409999 1.137
0.241 -3.733 1.0650001
0.64099997 -3.7809999 1.2920001
0.53399998 -3.77 1.216
0.42699999 -3.7550001 1.14
0.329 -3.734 1.062
0.727 -3.7839999 1.299
0.62199998 -3.7820001 1.222
0.51700002 -3.773 1.1440001
0.41299999 -3.7 1.049
0.81699997 -3.8010001 1.3099999
0.70999998 -3.7920001 1.228
0.60600001 -3.779 1.146
0.50999999 -3.77 1.066
0.90700001 -3.8150001 1.322
0.80199999 -3.8039999 1.235
0.699 -3.799 1.153
0.60299999 -3.7820001 1.067
0.99800003 -3.8239999 1.331
0.89399999 -3.819 1.244
0.792 -3.8069999 1.156
0.69599998 -3.7869999 1.068
1.091 -3.8369999 1.344
0.98699999 -3.8269999 1.251
0.88499999 -3.8169999 1.16
0.79299998 -3.806 1.072
1.187 -3.8540001 1.358
1.0829999 -3.842 1.261
0.98199999 -3.832 1.1670001
0.88999999 -3.819 1.076
1.28 -3.8540001 1.367
1.181 -3.859 1.273
1.08 -3.8429999 1.174
0.98900002 -3.8340001 1.081
1.317 -3.6949999 1.3200001
1.279 -3.8659999 1.2819999
1.1799999 -3.859 1.182
1.0880001 -3.8429999 1.084
1.342 -3.523 1.268
1.313 -3.6900001 1.23
1.28 -3.8670001 1.189
1.193 -3.859 1.091
1.357 -3.342 1.2130001
1.339 -3.5120001 1.178
1.312 -3.677 1.136
1.29 -3.849 1.09
1.378 -3.1919999 1.168
1.355 -3.3280001 1.124
1.334 -3.4820001 1.081
1.323 -3.655 1.038
1.398 -3.0539999 1.128
1.376 -3.174 1.08
1.3559999 -3.309 1.0319999
1.342 -3.4519999 0.98400003
1.418 -2.9300001 1.092
1.401 -3.046 1.045
1.378 -3.154 0.99000001
1.364 -3.276 0.93800002
1.437 -2.8110001 1.059
1.42 -2.9130001 1.007
1.401 -3.0150001 0.95300001
1.3940001 -3.1340001 0.90200001
1.452 -2.6949999 1.025
1.434 -2.78 0.97000003
1.418 -2.8759999 0.91600001
1.413 -2.9820001 0.86299998
1.464 -2.582 0.99299997
1.4529999 -2.6689999 0.94
1.436 -2.75 0.88200003
1.416 -2.8139999 0.81999999
1.48 -2.4820001 0.96600002
1.465 -2.5539999 0.90899998
1.45 -2.6270001 0.85100001
1.4579999 -2.733 0.80199999
1.493 -2.385 0.93900001
1.478 -2.4489999 0.88099998
1.467 -2.5179999 0.82300001
0 0 0
1.507 -2.296 0.91600001
1.498 -2.3599999 0.85900003
1.477 -2.4059999 0.79400003
0 0 0
1.515 -2.204 0.89099997
1.507 -2.2609999 0.833
1.495 -2.313 0.77200001
0 0 0
1.528 -2.122 0.87
1.5190001 -2.1719999 0.81
1.505 -2.214 0.74800003
0 0 0
1.54 -2.0439999 0.85000002
1.5319999 -2.089 0.79000002
0 0 0
0 0 0
1.552 -1.969 0.83099997
1.543 -2.0079999 0.76999998
0 0 0
0 0 0
1.563 -1.898 0.81400001
1.552 -1.9299999 0.75099999
0 0 0
0 0 0
1.568 -1.823 0.79500002
1.5650001 -1.859 0.73500001
1.556 -1.887 0.67299998
0 0 0
1.584 -1.763 0.78200001
1.579 -1.7920001 0.72000003
1.572 -1.819 0.65899998
1.571 -1.8430001 0.60000002
1.59 -1.694 0.76499999
1.582 -1.716 0.70200002
1.5779999 -1.7410001 0.64200002
1.58 -1.766 0.58499998
1.597 -1.63 0.75
1.596 -1.655 0.69
1.592 -1.676 0.62900001
1.592 -1.6950001 0.57099998
1.608 -1.571 0.73699999
1.602 -1.589 0.67500001
1.592 -1.6 0.61199999
1.601 -1.625 0.55800003
1.6109999 -1.508 0.72299999
1.599 -1.516 0.65700001
1.6059999 -1.541 0.60100001
1.604 -1.552 0.54299998
1.62 -1.452 0.71100003
1.6160001 -1.465 0.64899999
1.612 -1.477 0.588
1.6059999 -1.48 0.52899998
1.625 -1.395 0.69800001
1.622 -1.406 0.63700002
1.623 -1.418 0.57800001
0 0 0
1.631 -1.339 0.68599999
1.63 -1.35 0.62599999
0 0 0
0.87699997 -0.73299998 0.27399999
1.64 -1.289 0.67699999
1.633 -1.291 0.61299998
0.84500003 -0.671 0.287
0.86199999 -0.685 0.26300001
1.647 -1.237 0.667
1.653 -1.247 0.60900003
1.653 -1.251 0.54900002
0.84299999 -0.63800001 0.25099999
1.656 -1.189 0.65799999
1.656 -1.192 0.59799999
1.664 -1.2 0.542
0.87900001 -0.63300002 0.257
1.663 -1.141 0.64899999
1.6569999 -1.138 0.58700001
1.664 -1.142 0.53200001
1.671 -1.142 0.47799999
1.668 -1.092 0.63999999
1.6720001 -1.094 0.58200002
1.671 -1.09 0.52399999
1.6720001 -1.084 0.46900001
1.679 -1.048 0.634
1.677 -1.044 0.574
1.678 -1.04 0.51599997
1.679 -1.0319999 0.46200001
1.686 -1.003 0.62599999
1.686 -0.99699998 0.56699997
1.689 -0.99199998 0.50999999
1.686 -0.98000002 0.456
1.6900001 -0.95599997 0.61799997
1.6950001 -0.95099998 0.56
1.694 -0.94300002 0.50300002
1.693 -0.93000001 0.449
1.7029999 -0.91500002 0.61299998
1.696 -0.90200001 0.55199999
1.698 -0.89300001 0.49599999
1.676 -0.86900002 0.43799999
1.702 -0.86799997 0.60399997
1.704 -0.85799998 0.546
1.655 -0.82200003 0.47600001
1.676 -0.81800002 0.43099999
1.7130001 -0.82700002 0.60000002
1.7130001 -0.81400001 0.542
1.707 -0.79799998 0.484
1.716 -0.787 0.435
1.717 -0.78399998 0.59299999
1.717 -0.76899999 0.53500003
1.719 -0.75599998 0.48100001
1.723 -0.73900002 0.43000001
1.7180001 -0.74000001 0.58600003
1.725 -0.727 0.53100002
1.727 -0.71200001 0.477
1.729 -0.69300002 0.426
1.723 -0.69800001 0.57999998
1.73 -0.68300003 0.52499998
1.735 -0.66799998 0.47299999
1.727 -0.64399999 0.41999999
1.73 -0.65799999 0.57599998
1.738 -0.64099997 0.52200001
1.734 -0.62099999 0.46700001
1.739 -0.60100001 0.41800001
1.739 -0.61799997 0.57200003
1.7359999 -0.59600002 0.51499999
1.742 -0.57800001 0.46399999
1.743 -0.55599999 0.41499999
1.749 -0.579 0.56900001
1.745 -0.55599999 0.51200002
1.752 -0.53600001 0.461
1.755 -0.51300001 0.41299999
1.756 -0.53899997 0.565
1.747 -0.51300001 0.50700003
1.7589999 -0.493 0.458
1.76 -0.46799999 0.41
1.752 -0.49700001 0.55800003
1.755 -0.47299999 0.505
1.763 -0.44999999 0.45500001
1.767 -0.42399999 0.40799999
1.757 -0.45699999 0.55400002
1.765 -0.433 0.50300002
1.77 -0.40799999 0.45300001
1.771 -0.38 0.40599999
1.767 -0.419 0.55199999
1.771 -0.39199999 0.5
1.772 -0.36399999 0.44999999
1.779 -0.33700001 0.405
1.772 -0.37900001 0.54799998
1.775 -0.34999999 0.49700001
1.776 -0.322 0.447
1.781 -0.292 0.403
1.777 -0.34 0.54500002
1.781 -0.31 0.495
1.783 -0.28 0.44600001
1.783 -0.248 0.40099999
1.784 -0.301 0.54299998
1.779 -0.26800001 0.49000001
1.7869999 -0.23800001 0.44400001
1.789 -0.205 0.40000001
1.788 -0.26199999 0.54000002
1.794 -0.229 0.491
1.795 -0.19599999 0.44299999
1.793 -0.162 0.39899999
1.793 -0.223 0.53799999
1.799 -0.189 0.49000001
1.8 -0.154 0.442
1.809 -0.119 0.40099999
1.802 -0.184 0.53600001
1.801 -0.147 0.48699999
1.808 -0.112 0.442
1.813 -0.075000003 0.40099999
1.806 -0.14399999 0.53399998
1.807 -0.106 0.486
1.818 -0.068999998 0.44299999
1.8200001 -0.030999999 0.40099999
1.812 -0.105 0.53299999
1.8099999 -0.064999998 0.484
1.819 -0.026000001 0.44100001
1.804 0.012 0.39700001
1.816 -0.066 0.53100002
1.818 -0.025 0.484
1.7690001 0.015 0.428
1.822 0.056000002 0.40000001
1.821 -0.026000001 0.52899998
1.778 0.016000001 0.472
1.814 0.057999998 0.43799999
1.494 0.082000002 0.32800001
1.793 0.013 0.51899999
1.8 0.057 0.47600001
1.694 0.093999997 0.40799999
0 0 0
1.801 0.052999999 0.51899999
1.576 0.086000003 0.41600001
1.393 0.11 0.33500001
1.189 0.124 0.26100001
1.7640001 0.090999998 0.50599998
1.332 0.103 0.34999999
1.183 0.122 0.28400001
1.193 0.153 0.26300001
0 0 0
1.191 0.12 0.31299999
1.388 0.176 0.33399999
1.197 0.183 0.264
1.192 0.114 0.33899999
1.187 0.146 0.31099999
0 0 0
1.197 0.213 0.26499999
1.222 0.14399999 0.347
1.184 0.17399999 0.31
1.201 0.20999999 0.289
1.207 0.245 0.26800001
1.242 0.17399999 0.352
1.193 0.20299999 0.31200001
1.191 0.237 0.287
0 0 0
1.228 0.2 0.347
1.21 0.234 0.317
1.207 0.27000001 0.292
1.226 0.31099999 0.27500001
1.238 0.23 0.34900001
1.202 0.26100001 0.315
1.22 0.303 0.296
1.21 0.33899999 0.273
1.243 0.25999999 0.34999999
1.212 0.29300001 0.31799999
1.2180001 0.33399999 0.29699999
1.249 0.382 0.28299999
1.2539999 0.29100001 0.35299999
1.225 0.32600001 0.322
1.223 0.366 0.29899999
1.2 0.39899999 0.27399999
1.261 0.322 0.35499999
1.23 0.35800001 0.324
1.239 0.403 0.30500001
0 0 0
1.268 0.35499999 0.35699999
0 0 0
1.248 0.43900001 0.30899999
0 0 0
1.268 0.38499999 0.35699999
1.267 0.43200001 0.336
1.216 0.46000001 0.303
1.224 0.50800002 0.287
1.2640001 0.41499999 0.35699999
1.267 0.465 0.33700001
0 0 0
1.223 0.54299998 0.28999999
1.266 0.447 0.35800001
1.291 0.50800002 0.345
0 0 0
1.245 0.58899999 0.29800001
1.28 0.48500001 0.36300001
1.286 0.54000002 0.34599999
1.233 0.56900001 0.31400001
1.255 0.63099998 0.30399999
1.298 0.52499998 0.36899999
1.294 0.579 0.34999999
1.273 0.62400001 0.32699999
1.262 0.67299998 0.31
1.2970001 0.55900002 0.37
1.278 0.60699999 0.34799999
1.2690001 0.65899998 0.329
1.268 0.71600002 0.31600001
1.29 0.59100002 0.36899999
1.274 0.64200002 0.34900001
1.2640001 0.69499999 0.33199999
1.27 0.75700003 0.32100001
1.275 0.61900002 0.36700001
1.278 0.68199998 0.35299999
1.3049999 0.75800002 0.34599999
1.281 0.80599999 0.329
1.273 0.65399998 0.368
1.26 0.70999998 0.35100001
1.272 0.77999997 0.34099999
1.299 0.86199999 0.338
1.273 0.69099998 0.37
1.285 0.76300001 0.361
1.2869999 0.83200002 0.34999999
1.28 0.89399999 0.33899999
0 0 0
1.277 0.79900002 0.36300001
1.344 0.91399997 0.37099999
1.319 0.96799999 0.35600001
1.279 0.76999998 0.377
1.312 0.86299998 0.377
1.4400001 1.029 0.403
1.306 1.008 0.359
1.289 0.81699997 0.38299999
1.533 1.0599999 0.44499999
1.4220001 1.068 0.40400001
1.347 1.092 0.37799999
1.324 0.88200003 0.396
1.498 1.0880001 0.44
1.4069999 1.109 0.40700001
1.3200001 1.123 0.37799999
2.0209999 1.413 0.611
1.448 1.104 0.43099999
1.353 1.12 0.398
1.459 1.303 0.42699999
2.003 1.469 0.611
1.393 1.114 0.421
0 0 0
1.451 1.359 0.43399999
1.426 1.097 0.44
1.3380001 1.122 0.41
2.092 1.903 0.639
1.392 1.367 0.42699999
1.382 1.114 0.43099999
0 0 0
1.4299999 1.363 0.44600001
0 0 0
1.3380001 1.1289999 0.42199999
0 0 0
1.3839999 1.383 0.44100001
2.152 2.325 0.69499999
0 0 0
0 0 0
2.1110001 2.2119999 0.68800002
2.165 2.4530001 0.71799999
0 0 0
0 0 0
2.1400001 2.3499999 0.71399999
2.1849999 2.598 0.74599999
0 0 0
0 0 0
2.1689999 2.497 0.74299997
2.197 2.74 0.77399999
0 0 0
2.151 2.3840001 0.73699999
2.1889999 2.642 0.76899999
2.204 2.8859999 0.801
0 0 0
2.177 2.529 0.76200002
2.204 2.79 0.796
2.1240001 2.9219999 0.79799998
0 0 0
2.1949999 2.6730001 0.787
2.1819999 2.9000001 0.81199998
2.0339999 2.9419999 0.79100001
2.1800001 2.54 0.77100003
2.211 2.8239999 0.81300002
2.1010001 2.9330001 0.80599999
1.947 2.964 0.78600001
2.1960001 2.6819999 0.79299998
2.168 2.905 0.81800002
2.007 2.9460001 0.796
1.854 2.9719999 0.77700001
2.2190001 2.8410001 0.81900001
2.0829999 2.9330001 0.80900002
1.911 2.951 0.78399998
1.766 2.9860001 0.77100003
2.1630001 2.904 0.81699997
1.997 2.9530001 0.79900002
1.832 2.9779999 0.77899998
1.6849999 3.007 0.76800001
2.0799999 2.9319999 0.80599999
1.895 2.948 0.78200001
1.748 2.997 0.77200001
1.605 3.0280001 0.76499999
1.994 2.954 0.79299998
1.817 2.9760001 0.77499998
1.664 3.0139999 0.76499999
1.521 3.039 0.75999999
1.898 2.9579999 0.77700001
1.738 3.0020001 0.76899999
1.585 3.0369999 0.76099998
1.444 3.062 0.75800002
1.817 2.9820001 0.76700002
1.656 3.0209999 0.75999999
1.505 3.0550001 0.75599998
1.37 3.092 0.759
1.737 3.0039999 0.75700003
1.573 3.036 0.75199997
1.4299999 3.0829999 0.75400001
1.291 3.108 0.75700003
1.656 3.0250001 0.74699998
1.498 3.063 0.74699998
1.351 3.0999999 0.74900001
1.2130001 3.1229999 0.755
1.581 3.056 0.74000001
1.423 3.092 0.74299997
1.274 3.118 0.74599999
1.135 3.1359999 0.75300002
1.507 3.085 0.73400003
1.342 3.1040001 0.73500001
1.1950001 3.132 0.74199998
1.056 3.145 0.75099999
1.423 3.095 0.72299999
1.263 3.119 0.72899997
1.117 3.1459999 0.73900002
0.97799999 3.152 0.74800003
1.34 3.1040001 0.713
1.1849999 3.1340001 0.72399998
1.038 3.155 0.73400003
0.90200001 3.165 0.74800003
1.2589999 3.115 0.704
1.103 3.1389999 0.71600002
0.96100003 3.1659999 0.73100001
0.82599998 3.178 0.74699998
1.1799999 3.128 0.69499999
1.028 3.158 0.71200001
0.88300002 3.1730001 0.727
0.74900001 3.1800001 0.745
1.101 3.141 0.68800002
0.95099998 3.1700001 0.70700002
0.80599999 3.1789999 0.72399998
0.67400002 3.1919999 0.74599999
1.024 3.155 0.68099999
0.87099999 3.1700001 0.69999999
0.73000002 3.1889999 0.722
0.59799999 3.1949999 0.745
0.94400001 3.161 0.67299998
0.79400003 3.1789999 0.69499999
0.653 3.197 0.71899998
0.523 3.2 0.745
0.866 3.1700001 0.66600001
0.71799999 3.191 0.69199997
0.57700002 3.2019999 0.71700001
0.449 3.211 0.74599999
0.78899997 3.1800001 0.66000003
0.64099997 3.1960001 0.68699998
0.50300002 3.2119999 0.71600002
0.375 3.221 0.74699998
0.71100003 3.187 0.653
0.56400001 3.201 0.68300003
0.428 3.223 0.71600002
0.301 3.2309999 0.75
0.63300002 3.1919999 0.64600003
0.48899999 3.21 0.68000001
0.35299999 3.2309999 0.71600002
0.227 3.25 0.75400001
0.55599999 3.1989999 0.64099997
0.41299999 3.2160001 0.67699999
0.27900001 3.2449999 0.71700001
0.154 3.2690001 0.759
0.479 3.2079999 0.63599998
0.338 3.234 0.67699999
0.20299999 3.257 0.71799999
0.079000004 3.2809999 0.76300001
0.40400001 3.221 0.63300002
0.26300001 3.2449999 0.67500001
0.12800001 3.2679999 0.71899998
0.0040000002 3.2939999 0.76800001
0.32800001 3.233 0.63
0.18700001 3.257 0.67500001
0.052999999 3.2920001 0.72399998
-0.071000002 3.319 0.77499998
0.25 3.2409999 0.62599999
0.111 3.277 0.676
-0.023 3.302 0.72600001
-0.147 3.326 0.77899998
0.17399999 3.2579999 0.62400001
0.034000002 3.2920001 0.67699999
-0.098999999 3.3180001 0.73000002
-0.22400001 3.336 0.78399998
0.097000003 3.2750001 0.62300003
-0.043000001 3.309 0.67799997
-0.177 3.336 0.73400003
-0.301 3.3440001 0.78899997
0.018999999 3.293 0.62199998
-0.12 3.3210001 0.67900002
-0.255 3.3410001 0.736
-0.37799999 3.3510001 0.79400003
-0.059 3.3080001 0.62099999
-0.199 3.335 0.68099999
-0.33399999 3.349 0.74000001
-0.45699999 3.362 0.801
-0.138 3.326 0.62199998
-0.27900001 3.348 0.68300003
-0.41299999 3.3599999 0.74400002
-0.53600001 3.3659999 0.80599999
-0.21799999 3.3340001 0.62
-0.359 3.3559999 0.68400002
-0.493 3.368 0.74800003
-0.616 3.3759999 0.81300002
-0.30000001 3.348 0.62
-0.44 3.3629999 0.68599999
-0.57300001 3.368 0.75
-0.69499999 3.3770001 0.81800002
-0.382 3.3529999 0.61900002
-0.52200001 3.368 0.68699998
-0.65499997 3.381 0.75599998
-0.49000001 2.1329999 0.51999998
-0.463 3.3559999 0.61900002
-0.60500002 3.378 0.69
-0.73699999 3.3829999 0.75999999
-0.537 2.119 0.52100003
-0.54900002 3.3699999 0.62
-0.68800002 3.382 0.69199997
-0.51300001 2.119 0.479
-0.59200001 2.1340001 0.52899998
-0.63200003 3.3740001 0.62
-0.479 2.102 0.43099999
-0.56699997 2.1270001 0.48300001
-0.64700001 2.142 0.53500003
-0.442 2.085 0.38299999
-0.53600001 2.122 0.43700001
-0.62300003 2.138 0.48899999
-0.69999999 2.142 0.54000002
